ply
format ascii 1.0
comment Created by Open3D
element origin 1
property double x
property double y
property double z
element voxel_size 1
property double val
element vertex 3046
property double x
property double y
property double z
property uchar red
property uchar green
property uchar blue
end_header
-0.0951899 0.0324874 -0.0623736
0.001
31 129 41 0 0 0
83 25 27 0 0 0
81 55 24 0 0 0
42 12 105 0 0 0
8 104 106 0 0 0
43 12 105 0 0 0
51 125 67 0 0 0
18 123 78 0 0 0
24 71 100 0 0 0
45 12 105 0 0 0
93 98 82 0 0 0
47 12 104 0 0 0
105 90 96 0 0 0
70 6 48 0 0 0
117 49 112 0 0 0
79 73 105 0 0 0
26 123 75 0 0 0
146 28 58 0 0 0
50 12 104 0 0 0
51 71 103 0 0 0
6 55 80 0 0 0
68 134 53 0 0 0
87 81 103 0 0 0
89 2 44 0 0 0
32 59 107 0 0 0
69 141 43 0 0 0
19 62 100 0 0 0
91 14 111 0 0 0
80 40 117 0 0 0
103 9 38 0 0 0
51 12 104 0 0 0
72 45 23 0 0 0
46 116 72 0 0 0
43 115 79 0 0 0
96 71 105 0 0 0
21 113 106 0 0 0
25 71 101 0 0 0
17 55 50 0 0 0
68 89 87 0 0 0
58 18 101 0 0 0
99 69 107 0 0 0
79 26 114 0 0 0
81 83 101 0 0 0
33 32 93 0 0 0
63 1 41 0 0 0
38 16 71 0 0 0
52 12 103 0 0 0
62 59 106 0 0 0
48 98 66 0 0 0
84 36 117 0 0 0
33 135 7 0 0 0
23 120 18 0 0 0
99 28 118 0 0 0
53 12 103 0 0 0
50 46 104 0 0 0
91 28 27 0 0 0
76 13 113 0 0 0
72 22 106 0 0 0
111 96 70 0 0 0
41 61 40 0 0 0
35 123 65 0 0 0
45 91 53 0 0 0
101 36 117 0 0 0
154 24 76 0 0 0
43 126 70 0 0 0
75 9 33 0 0 0
89 66 112 0 0 0
25 59 46 0 0 0
65 13 111 0 0 0
46 88 93 0 0 0
127 36 103 0 0 0
52 1 65 0 0 0
96 99 71 0 0 0
34 123 85 0 0 0
66 13 112 0 0 0
54 50 105 0 0 0
56 118 57 0 0 0
2 86 96 0 0 0
70 49 115 0 0 0
124 15 97 0 0 0
105 24 114 0 0 0
67 13 112 0 0 0
80 14 110 0 0 0
73 13 114 0 0 0
53 9 39 0 0 0
91 17 114 0 0 0
84 96 85 0 0 0
60 75 100 0 0 0
75 13 114 0 0 0
96 68 39 0 0 0
84 33 117 0 0 0
1 86 79 0 0 0
99 92 53 0 0 0
33 27 81 0 0 0
68 17 108 0 0 0
10 109 66 0 0 0
82 6 112 0 0 0
95 60 117 0 0 0
71 18 105 0 0 0
101 85 100 0 0 0
83 51 23 0 0 0
40 121 82 0 0 0
39 119 91 0 0 0
63 6 32 0 0 0
17 57 99 0 0 0
77 13 113 0 0 0
49 14 103 0 0 0
23 142 19 0 0 0
112 2 86 0 0 0
67 23 37 0 0 0
80 13 112 0 0 0
83 145 33 0 0 0
135 68 58 0 0 0
9 61 61 0 0 0
133 23 93 0 0 0
87 13 109 0 0 0
90 17 114 0 0 0
57 122 52 0 0 0
45 104 80 0 0 0
111 2 89 0 0 0
80 141 43 0 0 0
39 43 105 0 0 0
8 56 62 0 0 0
31 4 104 0 0 0
76 128 56 0 0 0
98 3 85 0 0 0
89 13 109 0 0 0
90 55 26 0 0 0
94 53 119 0 0 0
90 89 98 0 0 0
22 53 103 0 0 0
90 13 109 0 0 0
24 101 111 0 0 0
137 59 56 0 0 0
47 123 71 0 0 0
127 73 50 0 0 0
32 115 99 0 0 0
18 116 54 0 0 0
115 37 111 0 0 0
23 123 86 0 0 0
61 29 101 0 0 0
78 5 76 0 0 0
130 25 97 0 0 0
54 47 105 0 0 0
67 14 111 0 0 0
54 140 54 0 0 0
62 121 62 0 0 0
54 1 36 0 0 0
62 43 103 0 0 0
73 150 50 0 0 0
18 107 110 0 0 0
45 110 74 0 0 0
48 67 104 0 0 0
88 6 97 0 0 0
27 115 31 0 0 0
16 96 115 0 0 0
32 119 54 0 0 0
25 140 22 0 0 0
91 13 109 0 0 0
59 1 70 0 0 0
94 13 109 0 0 0
1 94 79 0 0 0
57 15 102 0 0 0
9 61 90 0 0 0
133 18 94 0 0 0
50 22 101 0 0 0
127 12 92 0 0 0
22 40 53 0 0 0
70 19 103 0 0 0
96 13 110 0 0 0
28 122 64 0 0 0
29 123 82 0 0 0
97 13 110 0 0 0
67 48 26 0 0 0
33 50 106 0 0 0
104 7 39 0 0 0
97 81 103 0 0 0
132 46 49 0 0 0
54 78 44 0 0 0
114 95 73 0 0 0
29 67 104 0 0 0
99 13 110 0 0 0
29 117 100 0 0 0
32 129 12 0 0 0
101 13 110 0 0 0
25 74 99 0 0 0
26 123 62 0 0 0
3 101 83 0 0 0
28 141 2 0 0 0
4 115 75 0 0 0
55 86 92 0 0 0
146 35 88 0 0 0
10 79 65 0 0 0
58 81 96 0 0 0
65 93 78 0 0 0
138 59 86 0 0 0
119 70 44 0 0 0
103 13 109 0 0 0
155 35 75 0 0 0
64 59 37 0 0 0
59 82 95 0 0 0
51 96 76 0 0 0
61 82 95 0 0 0
20 68 99 0 0 0
60 27 101 0 0 0
92 98 71 0 0 0
129 81 66 0 0 0
130 79 87 0 0 0
101 23 115 0 0 0
56 28 103 0 0 0
108 7 39 0 0 0
137 61 89 0 0 0
88 97 65 0 0 0
60 82 95 0 0 0
144 39 68 0 0 0
125 53 42 0 0 0
76 88 95 0 0 0
36 37 100 0 0 0
21 123 81 0 0 0
48 70 103 0 0 0
76 24 111 0 0 0
38 1 102 0 0 0
4 102 80 0 0 0
55 42 104 0 0 0
63 32 40 0 0 0
46 104 69 0 0 0
21 124 31 0 0 0
92 40 26 0 0 0
92 80 104 0 0 0
149 15 78 0 0 0
145 29 58 0 0 0
140 60 72 0 0 0
85 97 82 0 0 0
54 61 104 0 0 0
99 97 86 0 0 0
88 81 103 0 0 0
153 21 72 0 0 0
64 24 99 0 0 0
77 43 117 0 0 0
77 17 109 0 0 0
83 49 120 0 0 0
44 110 76 0 0 0
112 58 111 0 0 0
18 115 102 0 0 0
23 115 103 0 0 0
35 9 78 0 0 0
49 131 53 0 0 0
25 126 56 0 0 0
74 6 115 0 0 0
53 26 102 0 0 0
117 15 102 0 0 0
136 68 84 0 0 0
72 91 85 0 0 0
89 70 106 0 0 0
77 46 119 0 0 0
25 139 24 0 0 0
89 91 96 0 0 0
54 4 105 0 0 0
151 18 70 0 0 0
131 12 92 0 0 0
69 138 51 0 0 0
58 16 101 0 0 0
10 100 61 0 0 0
88 98 71 0 0 0
130 62 49 0 0 0
53 85 93 0 0 0
102 48 117 0 0 0
135 71 81 0 0 0
67 6 96 0 0 0
34 10 88 0 0 0
19 46 97 0 0 0
54 20 101 0 0 0
69 52 114 0 0 0
132 72 59 0 0 0
43 88 97 0 0 0
5 118 76 0 0 0
47 79 45 0 0 0
66 80 45 0 0 0
99 16 113 0 0 0
126 11 92 0 0 0
43 10 52 0 0 0
42 82 96 0 0 0
51 15 102 0 0 0
103 25 115 0 0 0
6 109 73 0 0 0
135 12 92 0 0 0
122 45 108 0 0 0
104 69 109 0 0 0
60 33 103 0 0 0
76 141 45 0 0 0
132 72 91 0 0 0
127 11 91 0 0 0
85 16 112 0 0 0
7 69 82 0 0 0
59 67 104 0 0 0
46 123 56 0 0 0
8 79 67 0 0 0
67 141 44 0 0 0
53 18 51 0 0 0
26 127 52 0 0 0
100 62 115 0 0 0
101 98 70 0 0 0
122 56 40 0 0 0
83 6 112 0 0 0
63 59 37 0 0 0
70 93 67 0 0 0
29 91 111 0 0 0
98 28 118 0 0 0
88 89 97 0 0 0
97 63 115 0 0 0
94 80 104 0 0 0
105 14 109 0 0 0
36 10 85 0 0 0
33 125 29 0 0 0
75 24 29 0 0 0
90 16 112 0 0 0
93 73 40 0 0 0
39 16 72 0 0 0
85 55 119 0 0 0
127 7 89 0 0 0
65 59 37 0 0 0
6 119 77 0 0 0
27 100 109 0 0 0
111 75 102 0 0 0
40 2 50 0 0 0
154 24 77 0 0 0
79 14 111 0 0 0
102 26 115 0 0 0
25 93 114 0 0 0
10 76 65 0 0 0
129 80 87 0 0 0
35 1 86 0 0 0
58 84 94 0 0 0
112 95 82 0 0 0
81 37 116 0 0 0
41 88 98 0 0 0
123 60 106 0 0 0
155 33 80 0 0 0
91 73 106 0 0 0
10 75 86 0 0 0
98 98 81 0 0 0
116 84 97 0 0 0
92 98 79 0 0 0
101 96 88 0 0 0
46 89 51 0 0 0
11 98 59 0 0 0
60 19 100 0 0 0
32 10 56 0 0 0
116 2 83 0 0 0
124 78 96 0 0 0
57 67 40 0 0 0
75 146 38 0 0 0
102 19 114 0 0 0
23 139 29 0 0 0
22 96 114 0 0 0
8 79 102 0 0 0
10 46 81 0 0 0
141 49 80 0 0 0
88 14 110 0 0 0
50 45 104 0 0 0
53 53 41 0 0 0
50 95 82 0 0 0
66 93 71 0 0 0
5 64 78 0 0 0
12 51 93 0 0 0
26 80 108 0 0 0
102 48 28 0 0 0
54 95 65 0 0 0
78 17 31 0 0 0
32 132 23 0 0 0
6 90 64 0 0 0
80 37 117 0 0 0
32 35 97 0 0 0
110 95 63 0 0 0
47 66 105 0 0 0
6 102 67 0 0 0
4 98 94 0 0 0
121 11 55 0 0 0
91 66 112 0 0 0
129 37 101 0 0 0
52 136 64 0 0 0
102 43 118 0 0 0
22 125 58 0 0 0
65 140 54 0 0 0
121 70 102 0 0 0
98 16 113 0 0 0
54 30 103 0 0 0
137 66 84 0 0 0
41 121 78 0 0 0
29 124 53 0 0 0
11 76 64 0 0 0
30 122 53 0 0 0
89 8 110 0 0 0
136 67 85 0 0 0
79 45 23 0 0 0
140 52 66 0 0 0
17 40 88 0 0 0
138 64 84 0 0 0
76 70 105 0 0 0
43 22 83 0 0 0
62 5 46 0 0 0
26 131 10 0 0 0
34 140 2 0 0 0
71 58 113 0 0 0
63 128 48 0 0 0
139 53 61 0 0 0
27 0 62 0 0 0
79 96 69 0 0 0
5 67 80 0 0 0
79 83 100 0 0 0
79 31 25 0 0 0
127 41 43 0 0 0
80 20 29 0 0 0
38 14 104 0 0 0
2 98 78 0 0 0
42 45 105 0 0 0
86 6 111 0 0 0
1 84 82 0 0 0
75 77 41 0 0 0
71 134 44 0 0 0
78 44 118 0 0 0
100 63 33 0 0 0
109 1 58 0 0 0
147 33 89 0 0 0
39 14 104 0 0 0
33 45 43 0 0 0
154 26 68 0 0 0
5 59 73 0 0 0
19 37 89 0 0 0
69 17 108 0 0 0
40 14 104 0 0 0
107 77 102 0 0 0
71 88 92 0 0 0
119 74 101 0 0 0
62 28 46 0 0 0
1 94 75 0 0 0
39 52 107 0 0 0
19 102 56 0 0 0
53 135 65 0 0 0
58 11 35 0 0 0
67 62 107 0 0 0
38 63 106 0 0 0
108 19 111 0 0 0
120 73 46 0 0 0
72 5 44 0 0 0
29 57 44 0 0 0
41 14 104 0 0 0
66 5 86 0 0 0
143 27 93 0 0 0
85 29 118 0 0 0
101 7 108 0 0 0
42 14 104 0 0 0
44 63 40 0 0 0
43 14 104 0 0 0
87 37 119 0 0 0
44 14 103 0 0 0
34 87 103 0 0 0
38 60 40 0 0 0
52 13 103 0 0 0
127 84 85 0 0 0
60 88 90 0 0 0
59 26 101 0 0 0
56 13 102 0 0 0
58 13 102 0 0 0
33 120 95 0 0 0
74 143 46 0 0 0
89 83 102 0 0 0
24 54 104 0 0 0
134 47 51 0 0 0
65 91 62 0 0 0
54 2 102 0 0 0
82 31 116 0 0 0
48 63 40 0 0 0
19 130 46 0 0 0
82 23 114 0 0 0
95 77 42 0 0 0
97 99 74 0 0 0
64 91 62 0 0 0
124 52 105 0 0 0
100 96 61 0 0 0
43 43 105 0 0 0
90 14 32 0 0 0
89 66 35 0 0 0
103 89 97 0 0 0
93 95 58 0 0 0
61 92 61 0 0 0
15 118 63 0 0 0
40 53 107 0 0 0
76 84 46 0 0 0
92 63 30 0 0 0
57 95 65 0 0 0
125 19 99 0 0 0
32 135 13 0 0 0
46 97 90 0 0 0
49 133 66 0 0 0
81 26 114 0 0 0
119 19 103 0 0 0
114 75 45 0 0 0
62 92 61 0 0 0
20 86 115 0 0 0
60 93 60 0 0 0
44 59 106 0 0 0
63 146 51 0 0 0
24 132 45 0 0 0
87 40 120 0 0 0
66 14 111 0 0 0
129 62 48 0 0 0
123 44 107 0 0 0
111 74 104 0 0 0
30 115 100 0 0 0
68 14 112 0 0 0
46 57 106 0 0 0
35 90 103 0 0 0
135 74 75 0 0 0
19 72 98 0 0 0
69 14 112 0 0 0
59 5 50 0 0 0
82 19 113 0 0 0
50 118 56 0 0 0
88 49 119 0 0 0
71 15 113 0 0 0
46 2 104 0 0 0
90 42 121 0 0 0
19 114 52 0 0 0
111 1 60 0 0 0
106 2 88 0 0 0
48 73 103 0 0 0
135 66 90 0 0 0
77 14 112 0 0 0
121 74 100 0 0 0
33 117 98 0 0 0
62 94 77 0 0 0
39 14 73 0 0 0
36 60 107 0 0 0
86 14 110 0 0 0
135 73 79 0 0 0
81 22 113 0 0 0
131 73 90 0 0 0
51 20 101 0 0 0
140 10 64 0 0 0
89 14 110 0 0 0
76 16 110 0 0 0
72 85 96 0 0 0
54 58 39 0 0 0
92 14 111 0 0 0
97 55 118 0 0 0
66 39 28 0 0 0
93 14 111 0 0 0
31 1 74 0 0 0
118 12 102 0 0 0
48 8 49 0 0 0
10 76 84 0 0 0
140 46 62 0 0 0
95 17 114 0 0 0
23 39 95 0 0 0
24 138 10 0 0 0
97 99 71 0 0 0
60 129 48 0 0 0
90 87 100 0 0 0
41 77 100 0 0 0
64 40 30 0 0 0
61 138 60 0 0 0
123 12 96 0 0 0
119 38 36 0 0 0
102 94 91 0 0 0
73 91 86 0 0 0
94 14 111 0 0 0
69 5 85 0 0 0
54 140 56 0 0 0
95 14 112 0 0 0
37 1 77 0 0 0
92 87 100 0 0 0
96 14 112 0 0 0
43 53 107 0 0 0
20 80 56 0 0 0
35 3 52 0 0 0
117 4 95 0 0 0
20 108 109 0 0 0
57 80 44 0 0 0
73 94 71 0 0 0
38 45 105 0 0 0
51 61 40 0 0 0
84 28 117 0 0 0
37 77 100 0 0 0
26 28 74 0 0 0
32 130 17 0 0 0
100 14 112 0 0 0
37 29 90 0 0 0
50 19 101 0 0 0
122 15 99 0 0 0
55 26 102 0 0 0
18 104 112 0 0 0
44 55 107 0 0 0
145 33 61 0 0 0
147 27 91 0 0 0
8 98 110 0 0 0
24 123 82 0 0 0
85 97 74 0 0 0
124 38 104 0 0 0
24 82 113 0 0 0
1 97 80 0 0 0
17 104 112 0 0 0
139 38 85 0 0 0
140 57 68 0 0 0
98 41 118 0 0 0
126 30 102 0 0 0
100 58 29 0 0 0
119 92 73 0 0 0
20 124 57 0 0 0
48 2 104 0 0 0
62 82 95 0 0 0
140 59 66 0 0 0
65 1 40 0 0 0
97 99 77 0 0 0
63 92 82 0 0 0
113 67 108 0 0 0
94 14 33 0 0 0
61 2 104 0 0 0
36 42 104 0 0 0
36 119 94 0 0 0
86 137 40 0 0 0
87 97 71 0 0 0
131 65 51 0 0 0
21 104 111 0 0 0
69 7 116 0 0 0
23 113 105 0 0 0
102 50 118 0 0 0
70 6 33 0 0 0
22 113 106 0 0 0
94 98 70 0 0 0
31 12 96 0 0 0
121 18 100 0 0 0
63 52 32 0 0 0
60 16 101 0 0 0
58 132 61 0 0 0
78 76 41 0 0 0
14 61 53 0 0 0
31 124 21 0 0 0
138 67 71 0 0 0
99 25 30 0 0 0
20 118 98 0 0 0
54 14 46 0 0 0
66 144 56 0 0 0
128 12 92 0 0 0
95 66 113 0 0 0
91 31 27 0 0 0
132 12 93 0 0 0
133 13 93 0 0 0
51 61 105 0 0 0
54 36 104 0 0 0
125 39 41 0 0 0
79 81 101 0 0 0
60 90 54 0 0 0
121 29 106 0 0 0
47 128 69 0 0 0
10 77 87 0 0 0
51 128 68 0 0 0
61 26 101 0 0 0
117 73 102 0 0 0
106 50 116 0 0 0
24 93 114 0 0 0
108 12 106 0 0 0
59 93 60 0 0 0
22 128 52 0 0 0
106 20 113 0 0 0
47 57 106 0 0 0
41 27 53 0 0 0
23 148 9 0 0 0
145 25 57 0 0 0
59 45 104 0 0 0
114 37 112 0 0 0
101 53 118 0 0 0
134 71 87 0 0 0
41 35 99 0 0 0
125 69 100 0 0 0
10 100 111 0 0 0
70 150 51 0 0 0
22 139 12 0 0 0
80 2 109 0 0 0
135 60 53 0 0 0
79 128 52 0 0 0
67 67 105 0 0 0
21 122 65 0 0 0
18 79 109 0 0 0
82 91 94 0 0 0
122 80 52 0 0 0
41 7 51 0 0 0
59 16 101 0 0 0
67 33 101 0 0 0
136 33 91 0 0 0
73 89 91 0 0 0
154 32 84 0 0 0
2 92 71 0 0 0
66 8 32 0 0 0
105 38 30 0 0 0
91 41 26 0 0 0
65 5 62 0 0 0
33 121 45 0 0 0
85 97 77 0 0 0
39 121 80 0 0 0
139 12 89 0 0 0
54 77 99 0 0 0
140 49 81 0 0 0
119 25 107 0 0 0
95 96 89 0 0 0
62 42 103 0 0 0
26 117 100 0 0 0
61 6 52 0 0 0
26 141 18 0 0 0
140 60 74 0 0 0
31 100 103 0 0 0
80 42 118 0 0 0
101 63 113 0 0 0
80 134 41 0 0 0
51 136 64 0 0 0
68 49 111 0 0 0
29 101 104 0 0 0
91 97 85 0 0 0
38 72 43 0 0 0
79 91 93 0 0 0
11 51 90 0 0 0
39 15 102 0 0 0
0 94 83 0 0 0
98 51 27 0 0 0
41 23 73 0 0 0
85 66 37 0 0 0
27 60 104 0 0 0
114 82 48 0 0 0
80 6 88 0 0 0
13 107 61 0 0 0
62 18 100 0 0 0
134 25 57 0 0 0
33 41 45 0 0 0
47 103 76 0 0 0
37 62 107 0 0 0
46 15 101 0 0 0
105 1 59 0 0 0
66 92 67 0 0 0
140 59 71 0 0 0
9 73 67 0 0 0
132 71 56 0 0 0
47 15 102 0 0 0
40 113 89 0 0 0
83 94 58 0 0 0
77 154 43 0 0 0
28 120 97 0 0 0
46 16 100 0 0 0
49 15 102 0 0 0
50 15 102 0 0 0
154 31 67 0 0 0
0 87 83 0 0 0
130 74 92 0 0 0
54 15 102 0 0 0
52 2 102 0 0 0
130 14 93 0 0 0
134 73 84 0 0 0
67 3 32 0 0 0
95 22 30 0 0 0
55 15 102 0 0 0
26 131 46 0 0 0
97 26 117 0 0 0
83 19 113 0 0 0
27 130 46 0 0 0
13 119 66 0 0 0
17 52 98 0 0 0
63 22 99 0 0 0
18 62 99 0 0 0
43 16 84 0 0 0
120 90 85 0 0 0
40 105 92 0 0 0
27 130 47 0 0 0
37 26 83 0 0 0
65 85 93 0 0 0
126 13 56 0 0 0
149 16 83 0 0 0
80 150 40 0 0 0
40 29 92 0 0 0
60 135 59 0 0 0
29 128 47 0 0 0
67 16 110 0 0 0
155 35 74 0 0 0
126 85 80 0 0 0
88 67 38 0 0 0
148 38 67 0 0 0
72 16 111 0 0 0
42 13 83 0 0 0
36 117 96 0 0 0
136 15 94 0 0 0
78 16 110 0 0 0
18 68 98 0 0 0
56 71 42 0 0 0
18 72 53 0 0 0
133 26 54 0 0 0
39 127 62 0 0 0
1 87 84 0 0 0
119 22 38 0 0 0
79 16 110 0 0 0
116 93 67 0 0 0
138 52 89 0 0 0
74 152 48 0 0 0
77 57 118 0 0 0
134 50 49 0 0 0
126 80 92 0 0 0
76 12 114 0 0 0
87 16 112 0 0 0
21 123 69 0 0 0
92 93 94 0 0 0
61 120 60 0 0 0
63 121 57 0 0 0
91 16 112 0 0 0
32 122 69 0 0 0
92 43 121 0 0 0
28 37 96 0 0 0
78 30 115 0 0 0
56 15 47 0 0 0
19 140 23 0 0 0
131 40 99 0 0 0
112 73 105 0 0 0
36 109 58 0 0 0
92 16 112 0 0 0
85 6 111 0 0 0
124 16 98 0 0 0
32 133 20 0 0 0
95 16 113 0 0 0
99 99 79 0 0 0
7 71 72 0 0 0
6 105 88 0 0 0
38 95 101 0 0 0
101 16 113 0 0 0
107 95 88 0 0 0
94 69 106 0 0 0
32 44 44 0 0 0
131 5 83 0 0 0
103 16 112 0 0 0
96 80 104 0 0 0
51 4 36 0 0 0
85 89 97 0 0 0
43 47 41 0 0 0
34 1 90 0 0 0
140 60 66 0 0 0
67 124 60 0 0 0
108 2 90 0 0 0
54 28 103 0 0 0
143 40 76 0 0 0
110 40 114 0 0 0
37 123 75 0 0 0
32 129 14 0 0 0
86 57 25 0 0 0
134 49 96 0 0 0
99 99 72 0 0 0
31 144 6 0 0 0
101 99 78 0 0 0
138 66 65 0 0 0
22 104 111 0 0 0
134 75 71 0 0 0
76 95 70 0 0 0
28 119 21 0 0 0
150 21 87 0 0 0
20 143 18 0 0 0
30 34 53 0 0 0
62 39 35 0 0 0
17 47 96 0 0 0
20 113 106 0 0 0
109 46 31 0 0 0
74 5 77 0 0 0
31 124 47 0 0 0
18 113 105 0 0 0
45 63 106 0 0 0
21 122 91 0 0 0
96 87 48 0 0 0
66 27 99 0 0 0
56 4 52 0 0 0
110 2 101 0 0 0
109 46 116 0 0 0
96 69 106 0 0 0
98 27 29 0 0 0
45 75 43 0 0 0
9 86 60 0 0 0
103 40 118 0 0 0
43 15 83 0 0 0
31 115 100 0 0 0
62 32 101 0 0 0
33 115 99 0 0 0
28 147 7 0 0 0
53 126 65 0 0 0
94 98 79 0 0 0
38 70 104 0 0 0
127 14 93 0 0 0
131 14 93 0 0 0
35 74 102 0 0 0
88 23 116 0 0 0
100 1 64 0 0 0
69 60 31 0 0 0
53 12 42 0 0 0
24 1 70 0 0 0
116 52 112 0 0 0
55 16 101 0 0 0
110 93 60 0 0 0
79 5 76 0 0 0
133 14 93 0 0 0
30 50 106 0 0 0
17 47 97 0 0 0
134 14 93 0 0 0
39 45 105 0 0 0
78 154 39 0 0 0
59 64 105 0 0 0
62 71 40 0 0 0
135 14 93 0 0 0
81 95 85 0 0 0
77 15 32 0 0 0
83 92 93 0 0 0
49 135 56 0 0 0
15 93 115 0 0 0
41 90 52 0 0 0
82 58 25 0 0 0
5 109 94 0 0 0
78 77 103 0 0 0
139 59 83 0 0 0
138 66 78 0 0 0
69 93 71 0 0 0
131 29 50 0 0 0
43 28 93 0 0 0
31 60 106 0 0 0
59 85 93 0 0 0
61 81 96 0 0 0
2 83 81 0 0 0
105 98 81 0 0 0
5 60 79 0 0 0
5 103 74 0 0 0
45 103 64 0 0 0
26 128 52 0 0 0
37 11 55 0 0 0
141 48 71 0 0 0
131 79 83 0 0 0
63 93 76 0 0 0
33 115 58 0 0 0
77 39 117 0 0 0
155 29 80 0 0 0
30 120 56 0 0 0
79 88 96 0 0 0
28 124 8 0 0 0
42 53 40 0 0 0
98 70 106 0 0 0
24 127 54 0 0 0
45 2 107 0 0 0
23 135 39 0 0 0
74 143 47 0 0 0
22 106 110 0 0 0
66 40 103 0 0 0
132 77 84 0 0 0
53 28 103 0 0 0
104 5 93 0 0 0
74 94 77 0 0 0
98 80 103 0 0 0
57 94 62 0 0 0
57 82 95 0 0 0
136 60 90 0 0 0
43 73 102 0 0 0
41 16 99 0 0 0
84 95 88 0 0 0
110 1 84 0 0 0
32 117 57 0 0 0
72 6 101 0 0 0
58 86 50 0 0 0
103 61 114 0 0 0
22 124 25 0 0 0
72 62 111 0 0 0
100 6 108 0 0 0
44 16 99 0 0 0
111 11 106 0 0 0
8 73 73 0 0 0
34 1 81 0 0 0
80 85 99 0 0 0
47 16 100 0 0 0
50 16 101 0 0 0
55 94 60 0 0 0
16 122 75 0 0 0
56 16 101 0 0 0
91 51 119 0 0 0
49 84 46 0 0 0
58 135 62 0 0 0
57 16 101 0 0 0
136 24 94 0 0 0
58 95 76 0 0 0
7 113 94 0 0 0
57 77 99 0 0 0
3 112 80 0 0 0
156 31 73 0 0 0
45 113 73 0 0 0
25 133 43 0 0 0
24 138 30 0 0 0
97 6 49 0 0 0
126 85 83 0 0 0
84 5 112 0 0 0
91 66 113 0 0 0
60 137 61 0 0 0
56 124 67 0 0 0
137 68 69 0 0 0
20 127 53 0 0 0
60 84 94 0 0 0
40 121 77 0 0 0
48 112 65 0 0 0
39 97 56 0 0 0
98 37 118 0 0 0
88 68 108 0 0 0
60 71 41 0 0 0
78 26 27 0 0 0
1 87 75 0 0 0
117 29 109 0 0 0
100 44 118 0 0 0
54 26 50 0 0 0
37 123 76 0 0 0
26 148 4 0 0 0
122 89 75 0 0 0
104 45 29 0 0 0
100 37 118 0 0 0
96 28 118 0 0 0
25 143 15 0 0 0
73 17 108 0 0 0
25 1 67 0 0 0
20 132 43 0 0 0
96 1 42 0 0 0
16 108 109 0 0 0
74 17 108 0 0 0
73 7 116 0 0 0
83 137 43 0 0 0
34 107 96 0 0 0
69 2 107 0 0 0
38 122 75 0 0 0
75 17 108 0 0 0
20 94 115 0 0 0
88 93 54 0 0 0
90 5 110 0 0 0
79 17 110 0 0 0
62 145 57 0 0 0
66 92 80 0 0 0
80 17 111 0 0 0
22 147 12 0 0 0
66 70 104 0 0 0
82 17 112 0 0 0
5 117 75 0 0 0
40 33 97 0 0 0
32 90 108 0 0 0
85 17 113 0 0 0
129 31 46 0 0 0
71 138 50 0 0 0
55 70 102 0 0 0
93 18 115 0 0 0
95 74 41 0 0 0
86 17 113 0 0 0
110 78 45 0 0 0
45 17 98 0 0 0
95 26 117 0 0 0
20 116 45 0 0 0
128 76 54 0 0 0
118 40 110 0 0 0
108 18 34 0 0 0
89 17 113 0 0 0
110 38 31 0 0 0
59 25 101 0 0 0
84 24 28 0 0 0
90 22 116 0 0 0
96 97 88 0 0 0
115 93 82 0 0 0
15 82 58 0 0 0
77 130 54 0 0 0
98 23 115 0 0 0
110 78 101 0 0 0
33 133 9 0 0 0
94 18 115 0 0 0
116 48 112 0 0 0
76 140 46 0 0 0
36 71 103 0 0 0
130 51 44 0 0 0
96 17 114 0 0 0
35 70 104 0 0 0
58 67 40 0 0 0
43 42 44 0 0 0
103 97 63 0 0 0
114 28 111 0 0 0
89 28 117 0 0 0
76 41 116 0 0 0
138 39 88 0 0 0
28 121 93 0 0 0
57 131 62 0 0 0
97 17 114 0 0 0
110 52 32 0 0 0
123 84 91 0 0 0
53 20 101 0 0 0
50 61 40 0 0 0
116 92 85 0 0 0
98 18 114 0 0 0
114 51 113 0 0 0
126 15 95 0 0 0
68 59 30 0 0 0
74 31 110 0 0 0
98 99 70 0 0 0
86 96 64 0 0 0
61 27 101 0 0 0
99 17 114 0 0 0
93 23 116 0 0 0
132 75 60 0 0 0
70 78 100 0 0 0
104 17 112 0 0 0
64 73 40 0 0 0
4 90 68 0 0 0
11 110 65 0 0 0
44 104 85 0 0 0
147 22 59 0 0 0
33 110 56 0 0 0
133 5 66 0 0 0
47 85 93 0 0 0
118 4 89 0 0 0
127 81 59 0 0 0
57 62 106 0 0 0
42 107 87 0 0 0
62 76 43 0 0 0
82 97 74 0 0 0
76 5 64 0 0 0
2 90 71 0 0 0
108 79 44 0 0 0
33 122 36 0 0 0
22 104 55 0 0 0
11 118 93 0 0 0
9 75 83 0 0 0
75 59 115 0 0 0
76 131 52 0 0 0
59 50 105 0 0 0
91 22 116 0 0 0
124 36 41 0 0 0
36 25 69 0 0 0
132 52 98 0 0 0
58 125 66 0 0 0
16 113 105 0 0 0
36 119 95 0 0 0
49 132 67 0 0 0
97 29 119 0 0 0
135 49 95 0 0 0
5 108 92 0 0 0
26 134 40 0 0 0
75 3 115 0 0 0
127 18 53 0 0 0
1 94 78 0 0 0
145 18 90 0 0 0
101 84 101 0 0 0
119 40 109 0 0 0
68 92 81 0 0 0
88 83 45 0 0 0
77 26 113 0 0 0
48 132 66 0 0 0
14 117 98 0 0 0
1 90 73 0 0 0
131 57 100 0 0 0
127 16 94 0 0 0
75 91 89 0 0 0
4 109 88 0 0 0
60 91 85 0 0 0
71 19 104 0 0 0
87 60 27 0 0 0
28 80 104 0 0 0
155 28 69 0 0 0
113 2 54 0 0 0
128 15 93 0 0 0
64 19 46 0 0 0
129 15 93 0 0 0
9 46 79 0 0 0
94 45 26 0 0 0
60 29 102 0 0 0
64 85 49 0 0 0
62 89 87 0 0 0
130 15 93 0 0 0
131 15 93 0 0 0
106 62 113 0 0 0
56 1 32 0 0 0
100 39 118 0 0 0
70 52 115 0 0 0
114 94 77 0 0 0
87 58 119 0 0 0
57 60 106 0 0 0
65 11 33 0 0 0
104 29 116 0 0 0
12 100 113 0 0 0
132 15 94 0 0 0
50 35 102 0 0 0
41 94 98 0 0 0
135 15 94 0 0 0
29 122 56 0 0 0
140 55 64 0 0 0
27 46 45 0 0 0
55 82 95 0 0 0
137 21 94 0 0 0
10 73 65 0 0 0
118 54 38 0 0 0
94 65 114 0 0 0
7 90 62 0 0 0
77 95 75 0 0 0
31 122 21 0 0 0
34 67 104 0 0 0
54 42 44 0 0 0
134 6 78 0 0 0
139 63 74 0 0 0
20 114 104 0 0 0
88 96 86 0 0 0
51 32 102 0 0 0
120 69 104 0 0 0
24 89 115 0 0 0
77 53 119 0 0 0
18 125 38 0 0 0
100 23 115 0 0 0
83 51 119 0 0 0
68 148 48 0 0 0
9 73 68 0 0 0
88 8 36 0 0 0
31 121 52 0 0 0
64 93 70 0 0 0
57 12 38 0 0 0
90 47 120 0 0 0
50 136 63 0 0 0
86 97 83 0 0 0
63 90 85 0 0 0
126 53 42 0 0 0
90 58 118 0 0 0
11 103 61 0 0 0
26 107 107 0 0 0
98 81 103 0 0 0
31 133 23 0 0 0
57 57 38 0 0 0
100 84 101 0 0 0
67 125 62 0 0 0
56 92 84 0 0 0
66 11 113 0 0 0
90 25 28 0 0 0
27 123 89 0 0 0
5 102 89 0 0 0
49 98 75 0 0 0
43 17 97 0 0 0
100 22 115 0 0 0
2 88 71 0 0 0
144 33 61 0 0 0
44 17 98 0 0 0
2 94 73 0 0 0
77 49 120 0 0 0
59 29 102 0 0 0
113 93 62 0 0 0
74 131 53 0 0 0
99 43 118 0 0 0
127 85 68 0 0 0
47 17 100 0 0 0
48 18 100 0 0 0
98 96 89 0 0 0
103 27 32 0 0 0
92 95 91 0 0 0
67 145 45 0 0 0
58 40 104 0 0 0
45 19 53 0 0 0
124 88 75 0 0 0
51 18 101 0 0 0
24 128 53 0 0 0
141 49 77 0 0 0
91 84 102 0 0 0
36 85 101 0 0 0
53 18 101 0 0 0
96 20 115 0 0 0
120 52 38 0 0 0
54 18 101 0 0 0
113 43 34 0 0 0
48 45 105 0 0 0
16 65 52 0 0 0
55 18 101 0 0 0
124 13 97 0 0 0
29 9 58 0 0 0
56 18 101 0 0 0
31 120 62 0 0 0
94 77 105 0 0 0
59 18 100 0 0 0
20 146 9 0 0 0
60 18 100 0 0 0
76 5 66 0 0 0
28 81 108 0 0 0
41 15 87 0 0 0
26 129 8 0 0 0
9 60 61 0 0 0
125 86 83 0 0 0
16 129 36 0 0 0
63 53 33 0 0 0
80 14 32 0 0 0
133 29 95 0 0 0
127 83 84 0 0 0
51 25 50 0 0 0
2 87 98 0 0 0
32 78 99 0 0 0
60 29 49 0 0 0
49 69 104 0 0 0
69 18 105 0 0 0
49 122 70 0 0 0
74 18 107 0 0 0
110 95 83 0 0 0
78 19 110 0 0 0
69 5 57 0 0 0
79 19 111 0 0 0
51 95 63 0 0 0
113 77 101 0 0 0
155 34 74 0 0 0
50 135 55 0 0 0
129 13 56 0 0 0
38 40 103 0 0 0
35 122 87 0 0 0
73 93 65 0 0 0
117 13 103 0 0 0
43 95 96 0 0 0
61 144 54 0 0 0
53 1 58 0 0 0
75 73 104 0 0 0
80 19 111 0 0 0
95 10 37 0 0 0
154 22 74 0 0 0
119 12 101 0 0 0
84 19 113 0 0 0
52 1 40 0 0 0
64 70 104 0 0 0
8 72 83 0 0 0
85 19 113 0 0 0
151 21 85 0 0 0
84 2 105 0 0 0
90 19 115 0 0 0
140 60 71 0 0 0
84 87 99 0 0 0
91 19 115 0 0 0
70 10 116 0 0 0
142 14 88 0 0 0
23 71 49 0 0 0
80 31 25 0 0 0
92 19 116 0 0 0
21 122 33 0 0 0
111 13 38 0 0 0
141 23 56 0 0 0
33 123 73 0 0 0
100 71 40 0 0 0
44 61 40 0 0 0
68 150 51 0 0 0
86 59 26 0 0 0
93 19 116 0 0 0
96 19 115 0 0 0
116 93 82 0 0 0
64 14 107 0 0 0
48 39 103 0 0 0
71 147 51 0 0 0
29 88 53 0 0 0
115 16 39 0 0 0
97 19 115 0 0 0
105 1 49 0 0 0
90 65 114 0 0 0
42 104 61 0 0 0
73 94 66 0 0 0
22 131 48 0 0 0
72 28 105 0 0 0
98 19 115 0 0 0
23 125 58 0 0 0
135 73 82 0 0 0
60 59 106 0 0 0
100 19 115 0 0 0
107 23 113 0 0 0
3 88 69 0 0 0
85 43 119 0 0 0
101 19 114 0 0 0
37 125 64 0 0 0
56 40 104 0 0 0
85 58 26 0 0 0
102 4 56 0 0 0
85 65 114 0 0 0
75 22 29 0 0 0
103 19 114 0 0 0
107 97 78 0 0 0
95 6 88 0 0 0
13 76 90 0 0 0
21 96 114 0 0 0
138 63 61 0 0 0
140 23 94 0 0 0
33 122 43 0 0 0
88 30 118 0 0 0
128 8 89 0 0 0
123 28 41 0 0 0
24 87 115 0 0 0
133 72 89 0 0 0
139 60 80 0 0 0
38 0 61 0 0 0
37 73 103 0 0 0
94 84 102 0 0 0
64 88 88 0 0 0
82 68 106 0 0 0
139 60 81 0 0 0
75 35 114 0 0 0
21 111 53 0 0 0
110 54 114 0 0 0
101 81 102 0 0 0
68 129 58 0 0 0
66 122 55 0 0 0
18 96 115 0 0 0
67 78 99 0 0 0
10 81 109 0 0 0
86 84 101 0 0 0
27 147 8 0 0 0
27 129 7 0 0 0
21 101 113 0 0 0
98 6 95 0 0 0
40 88 100 0 0 0
134 21 94 0 0 0
25 125 57 0 0 0
141 49 67 0 0 0
128 80 60 0 0 0
72 67 38 0 0 0
76 5 88 0 0 0
137 67 65 0 0 0
83 64 113 0 0 0
91 47 120 0 0 0
36 14 71 0 0 0
98 26 117 0 0 0
127 84 68 0 0 0
133 6 63 0 0 0
18 130 42 0 0 0
39 0 56 0 0 0
115 75 46 0 0 0
62 37 41 0 0 0
129 17 93 0 0 0
21 49 101 0 0 0
24 110 107 0 0 0
141 50 75 0 0 0
130 17 93 0 0 0
131 17 93 0 0 0
37 19 65 0 0 0
109 96 84 0 0 0
101 95 90 0 0 0
132 17 94 0 0 0
45 116 59 0 0 0
26 81 52 0 0 0
65 144 57 0 0 0
134 17 94 0 0 0
32 123 72 0 0 0
135 17 94 0 0 0
118 66 106 0 0 0
137 17 94 0 0 0
62 57 37 0 0 0
99 35 118 0 0 0
24 83 114 0 0 0
138 19 55 0 0 0
54 1 51 0 0 0
80 26 114 0 0 0
54 57 105 0 0 0
119 87 92 0 0 0
0 88 85 0 0 0
40 63 40 0 0 0
48 6 107 0 0 0
105 33 116 0 0 0
113 58 110 0 0 0
107 2 88 0 0 0
6 108 74 0 0 0
35 66 105 0 0 0
144 14 87 0 0 0
118 92 83 0 0 0
54 1 99 0 0 0
130 69 95 0 0 0
125 37 103 0 0 0
118 37 109 0 0 0
91 96 89 0 0 0
60 60 38 0 0 0
39 122 77 0 0 0
129 59 102 0 0 0
111 16 37 0 0 0
31 130 3 0 0 0
132 65 95 0 0 0
155 35 78 0 0 0
32 47 105 0 0 0
23 131 47 0 0 0
15 108 108 0 0 0
75 19 31 0 0 0
132 23 93 0 0 0
50 113 67 0 0 0
44 102 89 0 0 0
64 14 36 0 0 0
117 90 90 0 0 0
80 128 50 0 0 0
113 94 83 0 0 0
32 118 52 0 0 0
91 98 73 0 0 0
49 97 67 0 0 0
10 121 82 0 0 0
17 116 57 0 0 0
54 95 64 0 0 0
100 64 35 0 0 0
15 121 70 0 0 0
98 36 118 0 0 0
69 93 66 0 0 0
6 79 73 0 0 0
39 70 104 0 0 0
101 71 105 0 0 0
51 1 61 0 0 0
58 141 59 0 0 0
85 30 26 0 0 0
30 121 56 0 0 0
56 68 40 0 0 0
47 92 91 0 0 0
107 94 90 0 0 0
111 83 47 0 0 0
86 97 68 0 0 0
50 91 52 0 0 0
74 77 102 0 0 0
53 138 62 0 0 0
136 56 91 0 0 0
23 123 87 0 0 0
49 137 59 0 0 0
104 26 115 0 0 0
127 3 78 0 0 0
29 122 92 0 0 0
1 86 81 0 0 0
88 42 120 0 0 0
54 90 87 0 0 0
24 124 62 0 0 0
121 25 39 0 0 0
111 91 92 0 0 0
98 58 29 0 0 0
39 31 94 0 0 0
64 52 31 0 0 0
45 19 97 0 0 0
86 65 34 0 0 0
122 41 106 0 0 0
45 45 106 0 0 0
21 121 93 0 0 0
71 70 105 0 0 0
33 1 89 0 0 0
53 140 56 0 0 0
31 125 13 0 0 0
48 19 100 0 0 0
49 19 100 0 0 0
113 78 100 0 0 0
93 97 85 0 0 0
59 19 100 0 0 0
52 19 101 0 0 0
57 1 39 0 0 0
2 82 76 0 0 0
89 73 39 0 0 0
110 96 81 0 0 0
18 44 95 0 0 0
56 20 101 0 0 0
138 45 89 0 0 0
54 19 101 0 0 0
51 26 102 0 0 0
13 46 91 0 0 0
26 34 57 0 0 0
93 93 94 0 0 0
67 52 110 0 0 0
80 135 40 0 0 0
55 19 101 0 0 0
3 91 69 0 0 0
56 19 101 0 0 0
62 92 82 0 0 0
1 97 79 0 0 0
122 83 55 0 0 0
100 47 118 0 0 0
62 19 99 0 0 0
101 70 107 0 0 0
111 70 108 0 0 0
95 49 119 0 0 0
48 100 75 0 0 0
63 19 99 0 0 0
11 69 59 0 0 0
55 53 105 0 0 0
94 26 117 0 0 0
131 78 86 0 0 0
88 97 69 0 0 0
30 126 46 0 0 0
59 67 40 0 0 0
18 39 90 0 0 0
88 43 120 0 0 0
46 70 103 0 0 0
126 21 100 0 0 0
97 9 38 0 0 0
5 108 91 0 0 0
41 0 80 0 0 0
122 89 80 0 0 0
56 1 68 0 0 0
31 126 47 0 0 0
59 94 63 0 0 0
115 53 111 0 0 0
123 88 81 0 0 0
139 41 87 0 0 0
135 31 92 0 0 0
37 67 105 0 0 0
110 5 106 0 0 0
21 125 30 0 0 0
51 95 79 0 0 0
52 122 69 0 0 0
51 11 46 0 0 0
60 87 91 0 0 0
75 69 38 0 0 0
69 19 102 0 0 0
72 19 105 0 0 0
90 39 120 0 0 0
51 14 50 0 0 0
66 5 32 0 0 0
75 20 109 0 0 0
76 20 110 0 0 0
26 123 71 0 0 0
77 20 111 0 0 0
140 60 77 0 0 0
6 87 108 0 0 0
80 20 112 0 0 0
57 82 46 0 0 0
18 74 54 0 0 0
149 32 89 0 0 0
81 20 112 0 0 0
82 20 113 0 0 0
22 64 102 0 0 0
10 65 60 0 0 0
47 103 79 0 0 0
33 46 104 0 0 0
109 95 85 0 0 0
84 20 114 0 0 0
52 96 69 0 0 0
33 14 65 0 0 0
126 29 102 0 0 0
30 3 54 0 0 0
55 29 103 0 0 0
40 67 41 0 0 0
88 20 115 0 0 0
113 26 34 0 0 0
37 64 105 0 0 0
8 62 63 0 0 0
117 65 40 0 0 0
89 20 115 0 0 0
35 94 102 0 0 0
20 77 106 0 0 0
91 20 116 0 0 0
135 46 95 0 0 0
60 122 64 0 0 0
83 42 119 0 0 0
6 60 71 0 0 0
92 20 116 0 0 0
6 63 72 0 0 0
133 64 94 0 0 0
59 5 55 0 0 0
115 69 107 0 0 0
78 138 45 0 0 0
142 32 90 0 0 0
138 10 87 0 0 0
93 21 117 0 0 0
48 55 107 0 0 0
94 21 117 0 0 0
96 6 53 0 0 0
63 87 91 0 0 0
33 57 107 0 0 0
139 60 83 0 0 0
128 80 88 0 0 0
97 20 115 0 0 0
28 9 72 0 0 0
52 77 100 0 0 0
56 30 103 0 0 0
68 60 107 0 0 0
16 100 114 0 0 0
120 12 50 0 0 0
52 67 104 0 0 0
57 1 70 0 0 0
98 20 115 0 0 0
24 60 104 0 0 0
10 106 63 0 0 0
7 57 86 0 0 0
101 20 115 0 0 0
77 62 114 0 0 0
89 44 24 0 0 0
9 79 89 0 0 0
50 94 84 0 0 0
101 25 115 0 0 0
102 20 114 0 0 0
131 33 100 0 0 0
139 14 91 0 0 0
103 20 114 0 0 0
6 62 86 0 0 0
97 91 96 0 0 0
104 20 114 0 0 0
24 124 17 0 0 0
85 5 79 0 0 0
93 42 121 0 0 0
9 50 66 0 0 0
73 73 104 0 0 0
95 37 118 0 0 0
128 70 96 0 0 0
105 20 114 0 0 0
20 116 43 0 0 0
80 44 118 0 0 0
3 99 73 0 0 0
102 3 49 0 0 0
25 148 8 0 0 0
131 4 73 0 0 0
82 89 96 0 0 0
20 99 114 0 0 0
68 27 31 0 0 0
97 94 57 0 0 0
98 55 118 0 0 0
51 12 50 0 0 0
85 5 68 0 0 0
38 82 98 0 0 0
99 35 29 0 0 0
141 42 73 0 0 0
100 81 102 0 0 0
99 81 103 0 0 0
37 8 82 0 0 0
138 57 57 0 0 0
63 17 44 0 0 0
115 3 57 0 0 0
15 96 115 0 0 0
113 73 105 0 0 0
101 91 96 0 0 0
41 83 47 0 0 0
109 82 46 0 0 0
131 64 51 0 0 0
63 4 31 0 0 0
11 75 87 0 0 0
48 98 85 0 0 0
43 94 96 0 0 0
31 138 12 0 0 0
72 81 99 0 0 0
18 86 114 0 0 0
54 48 42 0 0 0
31 132 33 0 0 0
15 101 113 0 0 0
17 101 113 0 0 0
42 47 41 0 0 0
14 54 54 0 0 0
81 36 116 0 0 0
89 31 26 0 0 0
131 64 96 0 0 0
16 101 113 0 0 0
47 86 48 0 0 0
14 101 113 0 0 0
120 2 67 0 0 0
17 76 101 0 0 0
55 84 94 0 0 0
17 59 50 0 0 0
118 18 103 0 0 0
95 98 72 0 0 0
105 59 115 0 0 0
117 25 36 0 0 0
50 134 54 0 0 0
36 105 95 0 0 0
91 78 104 0 0 0
9 60 64 0 0 0
31 65 45 0 0 0
124 87 84 0 0 0
45 102 87 0 0 0
96 96 89 0 0 0
135 24 93 0 0 0
28 67 103 0 0 0
18 127 36 0 0 0
91 40 26 0 0 0
118 80 98 0 0 0
65 93 71 0 0 0
132 18 94 0 0 0
48 128 69 0 0 0
49 82 95 0 0 0
134 18 94 0 0 0
85 92 54 0 0 0
137 18 94 0 0 0
13 98 58 0 0 0
130 80 85 0 0 0
57 20 51 0 0 0
25 123 88 0 0 0
106 69 109 0 0 0
140 52 64 0 0 0
33 122 31 0 0 0
27 126 54 0 0 0
64 57 106 0 0 0
131 80 75 0 0 0
138 18 94 0 0 0
62 8 32 0 0 0
97 22 116 0 0 0
13 113 102 0 0 0
63 135 46 0 0 0
68 82 96 0 0 0
90 98 74 0 0 0
54 70 102 0 0 0
108 94 91 0 0 0
109 93 91 0 0 0
30 136 20 0 0 0
17 66 98 0 0 0
46 60 40 0 0 0
129 22 96 0 0 0
127 47 104 0 0 0
109 92 92 0 0 0
46 43 105 0 0 0
65 5 53 0 0 0
12 109 63 0 0 0
125 87 74 0 0 0
53 35 103 0 0 0
134 45 96 0 0 0
139 64 76 0 0 0
133 34 50 0 0 0
146 29 91 0 0 0
138 56 87 0 0 0
85 70 106 0 0 0
101 9 38 0 0 0
112 42 33 0 0 0
21 123 68 0 0 0
105 71 107 0 0 0
50 70 41 0 0 0
39 123 74 0 0 0
46 20 98 0 0 0
49 92 53 0 0 0
103 66 39 0 0 0
93 96 88 0 0 0
36 25 71 0 0 0
54 71 102 0 0 0
52 47 42 0 0 0
93 67 111 0 0 0
32 120 95 0 0 0
100 99 72 0 0 0
27 1 73 0 0 0
41 49 107 0 0 0
19 50 99 0 0 0
128 59 103 0 0 0
47 20 99 0 0 0
49 20 100 0 0 0
131 69 94 0 0 0
51 5 39 0 0 0
57 20 101 0 0 0
16 142 14 0 0 0
65 7 32 0 0 0
98 6 90 0 0 0
132 75 87 0 0 0
107 91 54 0 0 0
32 50 106 0 0 0
78 2 111 0 0 0
50 67 104 0 0 0
101 99 77 0 0 0
82 84 46 0 0 0
36 125 65 0 0 0
99 2 106 0 0 0
58 20 101 0 0 0
66 129 47 0 0 0
60 20 100 0 0 0
20 121 41 0 0 0
123 39 39 0 0 0
128 83 82 0 0 0
1 88 73 0 0 0
61 20 99 0 0 0
62 20 99 0 0 0
9 56 61 0 0 0
88 85 100 0 0 0
5 101 68 0 0 0
96 61 117 0 0 0
23 40 96 0 0 0
76 89 92 0 0 0
74 93 83 0 0 0
132 71 55 0 0 0
119 72 102 0 0 0
63 20 99 0 0 0
10 80 64 0 0 0
18 69 98 0 0 0
99 67 108 0 0 0
23 123 78 0 0 0
46 101 66 0 0 0
82 93 57 0 0 0
94 61 117 0 0 0
113 32 111 0 0 0
31 50 106 0 0 0
46 94 92 0 0 0
30 127 46 0 0 0
70 5 76 0 0 0
31 115 40 0 0 0
83 93 91 0 0 0
107 76 43 0 0 0
50 1 58 0 0 0
17 138 25 0 0 0
141 43 69 0 0 0
83 87 99 0 0 0
80 73 40 0 0 0
83 6 96 0 0 0
6 91 63 0 0 0
146 32 90 0 0 0
81 24 114 0 0 0
77 47 119 0 0 0
77 132 50 0 0 0
83 54 119 0 0 0
107 48 31 0 0 0
70 21 103 0 0 0
41 43 104 0 0 0
72 21 106 0 0 0
24 122 14 0 0 0
24 81 112 0 0 0
136 28 91 0 0 0
112 75 102 0 0 0
65 24 99 0 0 0
73 21 107 0 0 0
98 6 37 0 0 0
58 143 55 0 0 0
72 77 41 0 0 0
62 132 57 0 0 0
76 21 111 0 0 0
46 103 78 0 0 0
30 121 55 0 0 0
127 63 46 0 0 0
72 88 93 0 0 0
59 9 33 0 0 0
116 11 43 0 0 0
107 9 38 0 0 0
78 141 37 0 0 0
5 81 103 0 0 0
102 40 118 0 0 0
152 22 67 0 0 0
36 13 73 0 0 0
77 21 112 0 0 0
91 15 32 0 0 0
64 27 99 0 0 0
33 124 27 0 0 0
52 120 55 0 0 0
85 21 28 0 0 0
56 73 42 0 0 0
78 21 112 0 0 0
32 95 54 0 0 0
113 95 68 0 0 0
79 22 113 0 0 0
35 32 95 0 0 0
121 89 65 0 0 0
80 22 113 0 0 0
5 94 66 0 0 0
73 16 33 0 0 0
88 22 115 0 0 0
90 64 116 0 0 0
98 62 116 0 0 0
24 141 9 0 0 0
98 66 39 0 0 0
40 98 97 0 0 0
33 2 106 0 0 0
123 88 82 0 0 0
89 22 116 0 0 0
99 91 96 0 0 0
105 54 117 0 0 0
4 94 68 0 0 0
92 22 116 0 0 0
83 133 47 0 0 0
92 25 116 0 0 0
94 22 117 0 0 0
104 42 29 0 0 0
51 35 103 0 0 0
126 66 47 0 0 0
95 85 46 0 0 0
95 22 116 0 0 0
29 53 106 0 0 0
39 54 40 0 0 0
52 85 47 0 0 0
37 91 103 0 0 0
99 22 115 0 0 0
97 24 30 0 0 0
79 87 98 0 0 0
103 69 109 0 0 0
76 51 119 0 0 0
47 113 61 0 0 0
40 0 74 0 0 0
101 22 115 0 0 0
13 100 113 0 0 0
75 15 33 0 0 0
139 53 86 0 0 0
104 22 114 0 0 0
30 100 54 0 0 0
105 22 114 0 0 0
21 33 65 0 0 0
47 52 107 0 0 0
8 118 72 0 0 0
32 119 36 0 0 0
14 93 114 0 0 0
55 57 105 0 0 0
16 93 115 0 0 0
103 7 38 0 0 0
17 93 115 0 0 0
95 85 101 0 0 0
85 3 36 0 0 0
50 82 95 0 0 0
104 60 32 0 0 0
4 106 83 0 0 0
108 56 115 0 0 0
110 2 92 0 0 0
52 82 96 0 0 0
16 137 25 0 0 0
16 117 60 0 0 0
75 85 97 0 0 0
80 95 64 0 0 0
58 138 49 0 0 0
14 96 115 0 0 0
68 54 26 0 0 0
129 61 101 0 0 0
43 67 105 0 0 0
73 2 114 0 0 0
13 96 114 0 0 0
50 8 43 0 0 0
140 53 74 0 0 0
90 43 121 0 0 0
141 43 73 0 0 0
135 30 57 0 0 0
33 122 44 0 0 0
150 38 68 0 0 0
137 59 88 0 0 0
80 61 117 0 0 0
22 118 24 0 0 0
90 40 26 0 0 0
55 2 99 0 0 0
80 39 117 0 0 0
5 106 94 0 0 0
140 56 68 0 0 0
123 81 94 0 0 0
85 144 35 0 0 0
94 98 66 0 0 0
52 68 40 0 0 0
137 70 68 0 0 0
110 89 95 0 0 0
17 100 114 0 0 0
132 55 47 0 0 0
76 144 45 0 0 0
105 34 116 0 0 0
133 74 63 0 0 0
85 143 36 0 0 0
41 21 73 0 0 0
138 28 92 0 0 0
47 4 47 0 0 0
116 93 78 0 0 0
112 89 54 0 0 0
101 50 118 0 0 0
65 80 98 0 0 0
144 32 61 0 0 0
28 123 76 0 0 0
64 144 58 0 0 0
60 1 34 0 0 0
96 81 103 0 0 0
27 91 113 0 0 0
45 30 50 0 0 0
108 97 75 0 0 0
35 85 102 0 0 0
130 55 102 0 0 0
12 43 73 0 0 0
23 127 22 0 0 0
130 20 94 0 0 0
18 42 93 0 0 0
65 92 66 0 0 0
84 144 32 0 0 0
43 128 68 0 0 0
49 95 59 0 0 0
40 120 86 0 0 0
138 20 94 0 0 0
17 78 58 0 0 0
132 20 93 0 0 0
128 76 93 0 0 0
30 111 102 0 0 0
47 42 104 0 0 0
134 20 94 0 0 0
20 123 73 0 0 0
3 86 104 0 0 0
95 83 103 0 0 0
135 20 94 0 0 0
94 98 80 0 0 0
115 55 111 0 0 0
25 9 68 0 0 0
31 119 61 0 0 0
138 47 89 0 0 0
120 90 84 0 0 0
49 70 104 0 0 0
10 98 111 0 0 0
50 38 104 0 0 0
44 104 63 0 0 0
54 67 103 0 0 0
74 6 93 0 0 0
68 138 51 0 0 0
119 91 85 0 0 0
25 125 10 0 0 0
32 1 70 0 0 0
80 27 115 0 0 0
65 2 81 0 0 0
86 2 110 0 0 0
134 74 77 0 0 0
139 63 76 0 0 0
12 51 92 0 0 0
35 43 104 0 0 0
18 121 47 0 0 0
101 76 42 0 0 0
148 20 61 0 0 0
66 92 66 0 0 0
63 41 33 0 0 0
30 88 112 0 0 0
137 70 75 0 0 0
9 72 87 0 0 0
99 83 102 0 0 0
111 92 58 0 0 0
57 34 47 0 0 0
94 5 66 0 0 0
38 31 93 0 0 0
5 63 75 0 0 0
140 56 75 0 0 0
6 69 75 0 0 0
79 9 114 0 0 0
19 81 56 0 0 0
84 2 109 0 0 0
36 50 106 0 0 0
92 98 78 0 0 0
42 107 89 0 0 0
30 121 93 0 0 0
26 71 101 0 0 0
41 130 62 0 0 0
32 117 99 0 0 0
102 41 28 0 0 0
20 129 49 0 0 0
40 40 103 0 0 0
75 95 70 0 0 0
31 82 51 0 0 0
84 53 23 0 0 0
22 31 80 0 0 0
23 128 54 0 0 0
112 51 113 0 0 0
61 23 100 0 0 0
90 73 39 0 0 0
46 39 46 0 0 0
155 28 79 0 0 0
28 122 91 0 0 0
115 80 99 0 0 0
102 88 98 0 0 0
87 57 119 0 0 0
154 25 70 0 0 0
125 38 103 0 0 0
20 122 67 0 0 0
103 66 110 0 0 0
128 21 52 0 0 0
141 49 72 0 0 0
51 118 69 0 0 0
71 93 64 0 0 0
70 151 49 0 0 0
116 33 110 0 0 0
86 96 86 0 0 0
96 26 117 0 0 0
93 6 50 0 0 0
52 22 101 0 0 0
54 22 102 0 0 0
102 79 42 0 0 0
104 1 57 0 0 0
83 135 45 0 0 0
7 92 61 0 0 0
59 2 102 0 0 0
72 124 55 0 0 0
58 22 101 0 0 0
28 94 53 0 0 0
60 22 100 0 0 0
89 55 25 0 0 0
2 95 72 0 0 0
89 2 104 0 0 0
136 27 92 0 0 0
22 37 93 0 0 0
89 39 120 0 0 0
15 68 95 0 0 0
20 117 36 0 0 0
65 5 56 0 0 0
93 98 72 0 0 0
62 22 99 0 0 0
36 1 66 0 0 0
55 95 61 0 0 0
95 69 39 0 0 0
23 126 57 0 0 0
120 86 92 0 0 0
92 64 116 0 0 0
65 22 98 0 0 0
31 123 87 0 0 0
65 77 43 0 0 0
108 16 109 0 0 0
139 64 75 0 0 0
84 96 84 0 0 0
141 33 62 0 0 0
29 137 23 0 0 0
85 96 84 0 0 0
21 113 49 0 0 0
67 92 77 0 0 0
121 5 59 0 0 0
137 33 60 0 0 0
8 73 70 0 0 0
154 29 68 0 0 0
148 31 90 0 0 0
15 122 74 0 0 0
30 136 22 0 0 0
22 121 93 0 0 0
64 69 105 0 0 0
92 67 111 0 0 0
16 122 82 0 0 0
134 70 88 0 0 0
82 88 50 0 0 0
79 28 26 0 0 0
20 97 54 0 0 0
15 136 23 0 0 0
69 49 113 0 0 0
26 115 102 0 0 0
128 73 94 0 0 0
19 77 105 0 0 0
106 31 115 0 0 0
85 83 102 0 0 0
110 77 102 0 0 0
124 55 41 0 0 0
67 57 29 0 0 0
18 65 50 0 0 0
11 45 66 0 0 0
145 31 91 0 0 0
42 48 106 0 0 0
64 38 32 0 0 0
93 98 69 0 0 0
34 32 93 0 0 0
48 99 71 0 0 0
138 24 94 0 0 0
78 23 113 0 0 0
79 23 113 0 0 0
26 30 82 0 0 0
119 25 106 0 0 0
105 98 78 0 0 0
31 43 103 0 0 0
76 85 49 0 0 0
63 39 102 0 0 0
83 23 114 0 0 0
141 20 56 0 0 0
51 30 102 0 0 0
84 23 115 0 0 0
86 23 115 0 0 0
122 10 96 0 0 0
90 23 116 0 0 0
48 81 46 0 0 0
62 126 49 0 0 0
137 33 59 0 0 0
46 48 106 0 0 0
146 13 83 0 0 0
152 18 72 0 0 0
8 57 63 0 0 0
97 37 118 0 0 0
145 27 58 0 0 0
91 23 116 0 0 0
88 6 49 0 0 0
18 38 86 0 0 0
28 33 91 0 0 0
94 23 117 0 0 0
102 1 62 0 0 0
23 117 101 0 0 0
76 152 45 0 0 0
66 92 68 0 0 0
132 30 98 0 0 0
95 23 116 0 0 0
104 98 72 0 0 0
62 62 106 0 0 0
99 23 115 0 0 0
43 125 71 0 0 0
114 66 39 0 0 0
125 48 106 0 0 0
122 21 102 0 0 0
10 60 91 0 0 0
80 6 113 0 0 0
46 133 57 0 0 0
151 32 88 0 0 0
108 55 31 0 0 0
102 23 115 0 0 0
59 36 103 0 0 0
141 31 91 0 0 0
68 5 90 0 0 0
103 23 115 0 0 0
113 38 33 0 0 0
24 124 60 0 0 0
142 25 93 0 0 0
55 123 52 0 0 0
129 82 68 0 0 0
104 23 115 0 0 0
19 59 48 0 0 0
7 53 75 0 0 0
5 60 81 0 0 0
98 89 97 0 0 0
106 91 54 0 0 0
133 41 50 0 0 0
61 40 103 0 0 0
75 78 102 0 0 0
55 37 46 0 0 0
33 105 97 0 0 0
97 89 97 0 0 0
64 2 32 0 0 0
137 50 55 0 0 0
135 51 51 0 0 0
77 77 42 0 0 0
109 97 75 0 0 0
58 58 38 0 0 0
105 97 67 0 0 0
131 45 100 0 0 0
127 45 105 0 0 0
13 93 114 0 0 0
106 7 39 0 0 0
91 98 77 0 0 0
2 86 103 0 0 0
47 70 103 0 0 0
32 118 40 0 0 0
59 1 91 0 0 0
131 68 94 0 0 0
14 76 98 0 0 0
21 97 114 0 0 0
139 63 68 0 0 0
101 80 103 0 0 0
64 141 58 0 0 0
34 11 57 0 0 0
140 32 90 0 0 0
78 59 26 0 0 0
118 89 90 0 0 0
126 84 85 0 0 0
92 15 32 0 0 0
40 121 80 0 0 0
99 95 90 0 0 0
64 43 103 0 0 0
78 95 67 0 0 0
91 98 74 0 0 0
126 74 96 0 0 0
58 93 81 0 0 0
81 66 109 0 0 0
78 1 37 0 0 0
85 8 111 0 0 0
79 2 107 0 0 0
139 55 61 0 0 0
19 47 51 0 0 0
53 81 97 0 0 0
59 79 44 0 0 0
138 66 79 0 0 0
103 98 80 0 0 0
142 10 79 0 0 0
129 73 93 0 0 0
86 29 118 0 0 0
146 40 82 0 0 0
74 94 71 0 0 0
84 68 107 0 0 0
108 41 116 0 0 0
67 146 55 0 0 0
6 119 80 0 0 0
133 65 54 0 0 0
102 99 77 0 0 0
41 0 78 0 0 0
141 42 69 0 0 0
45 80 98 0 0 0
136 21 94 0 0 0
151 40 73 0 0 0
138 21 94 0 0 0
86 6 88 0 0 0
107 46 116 0 0 0
140 21 94 0 0 0
10 79 107 0 0 0
16 94 115 0 0 0
96 50 119 0 0 0
18 106 111 0 0 0
67 60 34 0 0 0
70 88 91 0 0 0
86 28 117 0 0 0
70 31 103 0 0 0
47 125 71 0 0 0
34 61 43 0 0 0
18 121 51 0 0 0
71 43 24 0 0 0
74 55 117 0 0 0
24 111 46 0 0 0
66 26 99 0 0 0
41 15 55 0 0 0
93 37 119 0 0 0
17 126 48 0 0 0
26 84 53 0 0 0
19 122 71 0 0 0
114 93 85 0 0 0
64 93 72 0 0 0
15 90 113 0 0 0
101 86 46 0 0 0
134 68 56 0 0 0
47 43 105 0 0 0
25 70 101 0 0 0
108 95 62 0 0 0
24 68 48 0 0 0
17 140 22 0 0 0
100 7 108 0 0 0
126 81 90 0 0 0
34 27 82 0 0 0
26 126 54 0 0 0
80 51 23 0 0 0
132 37 98 0 0 0
53 50 104 0 0 0
121 7 93 0 0 0
124 84 91 0 0 0
75 40 23 0 0 0
30 75 48 0 0 0
46 19 53 0 0 0
76 67 106 0 0 0
115 74 102 0 0 0
68 7 33 0 0 0
32 121 28 0 0 0
108 96 85 0 0 0
105 80 101 0 0 0
34 110 57 0 0 0
80 65 111 0 0 0
99 58 117 0 0 0
131 65 96 0 0 0
33 141 4 0 0 0
89 25 116 0 0 0
20 127 33 0 0 0
19 121 92 0 0 0
63 93 79 0 0 0
20 56 47 0 0 0
78 95 68 0 0 0
74 85 97 0 0 0
79 29 115 0 0 0
116 87 94 0 0 0
90 67 110 0 0 0
55 64 40 0 0 0
88 72 39 0 0 0
51 23 101 0 0 0
105 65 111 0 0 0
52 23 102 0 0 0
53 23 102 0 0 0
73 153 46 0 0 0
87 58 26 0 0 0
65 57 34 0 0 0
60 44 39 0 0 0
54 23 102 0 0 0
30 131 2 0 0 0
22 123 71 0 0 0
55 23 102 0 0 0
56 23 102 0 0 0
81 5 113 0 0 0
57 23 101 0 0 0
48 35 101 0 0 0
27 70 102 0 0 0
124 35 41 0 0 0
60 23 100 0 0 0
54 52 105 0 0 0
66 53 107 0 0 0
62 23 99 0 0 0
23 129 51 0 0 0
63 23 99 0 0 0
24 5 61 0 0 0
58 143 56 0 0 0
28 64 45 0 0 0
56 19 51 0 0 0
119 91 66 0 0 0
66 23 98 0 0 0
86 97 67 0 0 0
82 77 104 0 0 0
122 88 85 0 0 0
66 77 43 0 0 0
97 2 39 0 0 0
117 35 35 0 0 0
67 23 99 0 0 0
128 38 44 0 0 0
132 29 98 0 0 0
102 34 117 0 0 0
70 90 86 0 0 0
75 7 115 0 0 0
13 121 85 0 0 0
17 65 51 0 0 0
48 59 105 0 0 0
49 59 105 0 0 0
135 57 93 0 0 0
133 34 97 0 0 0
92 98 69 0 0 0
97 57 118 0 0 0
11 58 56 0 0 0
52 28 102 0 0 0
69 59 29 0 0 0
36 102 97 0 0 0
150 20 86 0 0 0
8 66 87 0 0 0
98 99 71 0 0 0
41 90 99 0 0 0
39 69 105 0 0 0
70 82 96 0 0 0
89 73 106 0 0 0
31 125 15 0 0 0
107 97 75 0 0 0
8 49 71 0 0 0
64 146 49 0 0 0
78 24 113 0 0 0
119 9 100 0 0 0
71 64 107 0 0 0
27 80 108 0 0 0
124 60 105 0 0 0
132 44 49 0 0 0
22 127 25 0 0 0
52 129 67 0 0 0
80 24 113 0 0 0
42 60 40 0 0 0
95 28 118 0 0 0
139 47 59 0 0 0
92 55 119 0 0 0
44 10 107 0 0 0
7 112 71 0 0 0
135 74 71 0 0 0
83 25 115 0 0 0
57 126 50 0 0 0
40 109 90 0 0 0
84 25 115 0 0 0
25 37 55 0 0 0
85 34 117 0 0 0
93 25 116 0 0 0
34 1 69 0 0 0
88 25 116 0 0 0
63 140 46 0 0 0
99 51 119 0 0 0
91 25 116 0 0 0
45 106 67 0 0 0
95 53 119 0 0 0
29 57 106 0 0 0
33 81 99 0 0 0
134 75 79 0 0 0
95 25 116 0 0 0
78 89 94 0 0 0
105 98 74 0 0 0
33 125 33 0 0 0
129 57 102 0 0 0
96 25 116 0 0 0
66 37 29 0 0 0
55 33 104 0 0 0
97 25 116 0 0 0
33 0 65 0 0 0
146 15 86 0 0 0
98 25 116 0 0 0
52 78 99 0 0 0
22 121 95 0 0 0
63 144 58 0 0 0
36 111 95 0 0 0
68 89 55 0 0 0
99 25 116 0 0 0
126 24 46 0 0 0
100 25 115 0 0 0
63 82 95 0 0 0
51 128 52 0 0 0
69 12 34 0 0 0
100 4 48 0 0 0
18 110 108 0 0 0
66 148 54 0 0 0
83 143 40 0 0 0
141 50 71 0 0 0
57 81 96 0 0 0
139 24 94 0 0 0
83 144 39 0 0 0
14 100 113 0 0 0
145 12 70 0 0 0
88 24 29 0 0 0
24 114 36 0 0 0
60 81 96 0 0 0
139 46 59 0 0 0
57 43 104 0 0 0
48 49 105 0 0 0
33 39 101 0 0 0
3 95 93 0 0 0
79 135 47 0 0 0
64 82 95 0 0 0
42 119 78 0 0 0
105 56 31 0 0 0
49 92 87 0 0 0
79 59 26 0 0 0
82 74 105 0 0 0
42 15 85 0 0 0
49 51 40 0 0 0
35 91 103 0 0 0
85 30 118 0 0 0
72 6 48 0 0 0
118 45 111 0 0 0
129 82 84 0 0 0
61 84 48 0 0 0
65 57 35 0 0 0
65 37 101 0 0 0
30 126 48 0 0 0
15 135 24 0 0 0
30 28 82 0 0 0
135 73 64 0 0 0
11 85 60 0 0 0
61 39 103 0 0 0
100 61 115 0 0 0
79 10 113 0 0 0
87 26 117 0 0 0
121 69 103 0 0 0
32 13 96 0 0 0
75 2 107 0 0 0
68 73 40 0 0 0
16 121 89 0 0 0
67 85 93 0 0 0
77 88 95 0 0 0
44 16 77 0 0 0
112 87 96 0 0 0
54 126 51 0 0 0
49 100 74 0 0 0
33 118 97 0 0 0
47 134 57 0 0 0
9 50 68 0 0 0
135 73 71 0 0 0
11 113 100 0 0 0
31 120 28 0 0 0
94 73 105 0 0 0
68 71 39 0 0 0
67 29 100 0 0 0
36 122 88 0 0 0
73 48 118 0 0 0
82 87 49 0 0 0
57 83 47 0 0 0
18 123 44 0 0 0
40 94 56 0 0 0
22 111 107 0 0 0
51 50 105 0 0 0
87 90 51 0 0 0
20 131 46 0 0 0
125 57 42 0 0 0
104 47 117 0 0 0
19 118 52 0 0 0
89 36 118 0 0 0
2 93 92 0 0 0
121 61 41 0 0 0
3 116 82 0 0 0
22 124 61 0 0 0
15 44 56 0 0 0
40 108 60 0 0 0
134 23 93 0 0 0
55 129 50 0 0 0
8 52 80 0 0 0
6 57 68 0 0 0
104 66 110 0 0 0
15 43 88 0 0 0
136 67 84 0 0 0
139 52 87 0 0 0
135 23 94 0 0 0
91 6 87 0 0 0
56 95 76 0 0 0
136 23 94 0 0 0
120 88 60 0 0 0
128 82 87 0 0 0
52 66 40 0 0 0
42 30 93 0 0 0
42 16 98 0 0 0
61 94 66 0 0 0
96 98 79 0 0 0
55 61 39 0 0 0
31 128 44 0 0 0
31 10 93 0 0 0
32 122 49 0 0 0
135 42 95 0 0 0
138 23 94 0 0 0
35 123 84 0 0 0
139 23 94 0 0 0
146 14 84 0 0 0
6 110 94 0 0 0
80 37 24 0 0 0
23 148 8 0 0 0
69 5 61 0 0 0
62 25 100 0 0 0
129 70 51 0 0 0
124 43 40 0 0 0
52 118 68 0 0 0
12 43 77 0 0 0
86 141 35 0 0 0
25 36 56 0 0 0
108 97 79 0 0 0
140 13 90 0 0 0
120 90 68 0 0 0
141 22 94 0 0 0
90 58 26 0 0 0
87 6 86 0 0 0
101 39 118 0 0 0
70 5 78 0 0 0
79 141 44 0 0 0
30 71 102 0 0 0
15 100 114 0 0 0
76 6 115 0 0 0
132 31 50 0 0 0
120 29 107 0 0 0
72 31 107 0 0 0
111 95 82 0 0 0
17 36 74 0 0 0
153 33 67 0 0 0
37 28 88 0 0 0
94 94 92 0 0 0
61 132 47 0 0 0
56 95 65 0 0 0
83 58 118 0 0 0
133 24 93 0 0 0
12 43 76 0 0 0
9 70 63 0 0 0
1 84 78 0 0 0
129 81 86 0 0 0
40 73 102 0 0 0
104 58 116 0 0 0
14 43 61 0 0 0
62 140 47 0 0 0
79 150 41 0 0 0
114 93 84 0 0 0
154 28 66 0 0 0
137 68 76 0 0 0
22 72 50 0 0 0
31 101 54 0 0 0
4 80 73 0 0 0
133 77 76 0 0 0
5 84 66 0 0 0
19 117 51 0 0 0
36 1 102 0 0 0
72 152 50 0 0 0
78 47 119 0 0 0
52 138 61 0 0 0
72 126 59 0 0 0
88 67 110 0 0 0
20 54 102 0 0 0
28 123 83 0 0 0
20 119 97 0 0 0
77 95 68 0 0 0
70 5 68 0 0 0
40 107 92 0 0 0
64 5 44 0 0 0
154 26 84 0 0 0
101 94 91 0 0 0
107 80 44 0 0 0
55 96 73 0 0 0
31 81 102 0 0 0
87 64 31 0 0 0
73 94 74 0 0 0
100 1 80 0 0 0
76 138 47 0 0 0
31 122 92 0 0 0
137 43 56 0 0 0
25 1 60 0 0 0
52 25 102 0 0 0
8 53 85 0 0 0
97 66 39 0 0 0
45 82 46 0 0 0
126 84 63 0 0 0
69 78 100 0 0 0
142 11 63 0 0 0
55 25 102 0 0 0
50 59 105 0 0 0
72 93 63 0 0 0
56 25 102 0 0 0
91 94 57 0 0 0
57 25 102 0 0 0
61 25 100 0 0 0
93 48 25 0 0 0
109 17 109 0 0 0
62 49 104 0 0 0
142 34 63 0 0 0
63 24 99 0 0 0
60 26 50 0 0 0
66 24 98 0 0 0
67 24 99 0 0 0
10 72 64 0 0 0
21 125 33 0 0 0
52 96 68 0 0 0
72 92 62 0 0 0
70 92 61 0 0 0
22 3 64 0 0 0
123 17 46 0 0 0
21 45 98 0 0 0
84 97 79 0 0 0
95 30 119 0 0 0
51 116 68 0 0 0
111 30 112 0 0 0
33 122 35 0 0 0
141 43 68 0 0 0
133 25 93 0 0 0
84 96 66 0 0 0
87 88 98 0 0 0
46 103 66 0 0 0
50 8 42 0 0 0
10 50 88 0 0 0
90 98 69 0 0 0
53 93 83 0 0 0
39 3 108 0 0 0
106 98 74 0 0 0
34 81 98 0 0 0
74 77 41 0 0 0
84 53 119 0 0 0
103 67 40 0 0 0
83 5 67 0 0 0
100 98 84 0 0 0
135 39 52 0 0 0
137 10 87 0 0 0
121 42 108 0 0 0
21 132 44 0 0 0
64 52 105 0 0 0
63 84 94 0 0 0
115 94 78 0 0 0
132 5 79 0 0 0
33 125 26 0 0 0
133 52 97 0 0 0
76 63 34 0 0 0
111 90 93 0 0 0
78 26 113 0 0 0
109 82 99 0 0 0
82 96 70 0 0 0
17 50 98 0 0 0
33 124 38 0 0 0
21 122 36 0 0 0
83 26 116 0 0 0
79 47 23 0 0 0
88 6 84 0 0 0
103 98 75 0 0 0
135 50 95 0 0 0
53 45 105 0 0 0
84 26 116 0 0 0
32 97 54 0 0 0
132 59 98 0 0 0
35 88 103 0 0 0
89 26 117 0 0 0
79 30 25 0 0 0
139 53 58 0 0 0
90 26 116 0 0 0
23 74 99 0 0 0
24 35 91 0 0 0
91 26 116 0 0 0
49 66 105 0 0 0
138 66 73 0 0 0
92 26 116 0 0 0
56 60 38 0 0 0
32 111 54 0 0 0
63 41 34 0 0 0
0 91 83 0 0 0
118 7 55 0 0 0
2 86 88 0 0 0
56 36 104 0 0 0
27 123 83 0 0 0
25 29 79 0 0 0
93 26 116 0 0 0
126 49 105 0 0 0
109 1 64 0 0 0
95 2 77 0 0 0
99 26 117 0 0 0
28 138 25 0 0 0
53 123 53 0 0 0
26 70 102 0 0 0
143 10 71 0 0 0
35 46 105 0 0 0
62 30 47 0 0 0
84 97 75 0 0 0
100 26 116 0 0 0
78 78 42 0 0 0
44 34 99 0 0 0
74 67 106 0 0 0
62 1 36 0 0 0
65 81 97 0 0 0
38 43 105 0 0 0
58 77 43 0 0 0
101 26 116 0 0 0
110 6 106 0 0 0
83 65 32 0 0 0
29 95 53 0 0 0
80 134 48 0 0 0
70 92 62 0 0 0
0 93 81 0 0 0
145 19 59 0 0 0
105 26 114 0 0 0
133 75 80 0 0 0
81 88 97 0 0 0
44 67 105 0 0 0
78 88 96 0 0 0
90 10 36 0 0 0
47 98 87 0 0 0
58 134 63 0 0 0
136 20 55 0 0 0
25 83 114 0 0 0
29 114 40 0 0 0
102 89 97 0 0 0
140 10 85 0 0 0
85 135 42 0 0 0
114 34 111 0 0 0
80 81 101 0 0 0
112 94 85 0 0 0
30 87 111 0 0 0
128 82 85 0 0 0
46 87 92 0 0 0
53 63 104 0 0 0
52 47 104 0 0 0
65 22 42 0 0 0
22 121 25 0 0 0
139 47 60 0 0 0
3 94 96 0 0 0
136 68 62 0 0 0
16 75 95 0 0 0
55 95 76 0 0 0
61 25 51 0 0 0
49 99 74 0 0 0
29 123 88 0 0 0
31 29 85 0 0 0
93 98 75 0 0 0
5 65 79 0 0 0
93 34 27 0 0 0
25 62 46 0 0 0
100 98 79 0 0 0
117 53 111 0 0 0
93 9 37 0 0 0
82 42 118 0 0 0
68 93 69 0 0 0
83 97 74 0 0 0
7 116 91 0 0 0
20 79 109 0 0 0
62 44 33 0 0 0
89 30 118 0 0 0
24 76 51 0 0 0
9 77 83 0 0 0
72 89 90 0 0 0
119 38 109 0 0 0
57 137 63 0 0 0
134 24 93 0 0 0
120 81 51 0 0 0
75 49 119 0 0 0
86 5 73 0 0 0
15 103 112 0 0 0
137 24 94 0 0 0
127 15 93 0 0 0
88 88 49 0 0 0
24 100 112 0 0 0
49 1 52 0 0 0
140 24 94 0 0 0
89 43 25 0 0 0
121 76 100 0 0 0
19 123 82 0 0 0
62 17 46 0 0 0
26 138 26 0 0 0
3 95 92 0 0 0
65 129 47 0 0 0
89 95 90 0 0 0
124 56 41 0 0 0
141 24 94 0 0 0
138 37 88 0 0 0
114 70 41 0 0 0
142 24 94 0 0 0
42 25 85 0 0 0
85 66 111 0 0 0
139 63 67 0 0 0
33 135 4 0 0 0
32 88 108 0 0 0
48 64 105 0 0 0
19 51 48 0 0 0
86 95 89 0 0 0
63 13 35 0 0 0
84 39 118 0 0 0
84 15 32 0 0 0
155 36 77 0 0 0
9 77 69 0 0 0
22 113 45 0 0 0
12 43 80 0 0 0
118 51 111 0 0 0
65 2 41 0 0 0
73 152 49 0 0 0
127 51 43 0 0 0
123 88 66 0 0 0
61 28 49 0 0 0
99 66 111 0 0 0
113 3 67 0 0 0
137 70 70 0 0 0
109 91 93 0 0 0
96 62 116 0 0 0
122 51 108 0 0 0
15 62 97 0 0 0
60 69 104 0 0 0
52 3 71 0 0 0
18 60 100 0 0 0
36 114 96 0 0 0
62 84 94 0 0 0
93 28 118 0 0 0
117 63 109 0 0 0
6 80 104 0 0 0
87 93 92 0 0 0
80 5 61 0 0 0
86 137 37 0 0 0
68 84 94 0 0 0
84 43 119 0 0 0
72 93 79 0 0 0
10 112 68 0 0 0
4 106 79 0 0 0
40 119 88 0 0 0
105 78 101 0 0 0
72 5 85 0 0 0
35 121 91 0 0 0
96 76 105 0 0 0
34 120 96 0 0 0
124 53 106 0 0 0
76 95 67 0 0 0
32 1 72 0 0 0
47 67 104 0 0 0
109 69 109 0 0 0
58 2 31 0 0 0
86 51 119 0 0 0
72 93 65 0 0 0
91 55 119 0 0 0
116 7 52 0 0 0
46 15 52 0 0 0
142 27 93 0 0 0
72 48 23 0 0 0
75 53 119 0 0 0
50 88 89 0 0 0
87 46 120 0 0 0
67 92 63 0 0 0
113 90 57 0 0 0
107 92 93 0 0 0
39 93 101 0 0 0
141 8 74 0 0 0
4 97 97 0 0 0
54 26 102 0 0 0
88 23 29 0 0 0
124 86 88 0 0 0
92 3 37 0 0 0
139 49 60 0 0 0
117 60 109 0 0 0
72 151 45 0 0 0
13 70 92 0 0 0
26 49 104 0 0 0
76 137 41 0 0 0
80 95 83 0 0 0
56 26 102 0 0 0
121 25 40 0 0 0
58 26 102 0 0 0
135 7 82 0 0 0
120 67 105 0 0 0
84 30 117 0 0 0
110 95 84 0 0 0
73 62 33 0 0 0
53 56 104 0 0 0
60 26 101 0 0 0
60 64 39 0 0 0
92 58 118 0 0 0
58 82 46 0 0 0
103 85 99 0 0 0
72 141 48 0 0 0
22 46 48 0 0 0
1 87 78 0 0 0
62 26 100 0 0 0
39 95 56 0 0 0
62 33 102 0 0 0
63 26 100 0 0 0
33 127 27 0 0 0
32 11 74 0 0 0
24 74 99 0 0 0
59 9 107 0 0 0
65 26 99 0 0 0
63 81 45 0 0 0
72 87 94 0 0 0
67 26 99 0 0 0
36 82 99 0 0 0
125 2 75 0 0 0
33 122 40 0 0 0
11 109 64 0 0 0
111 94 88 0 0 0
140 53 78 0 0 0
81 95 65 0 0 0
48 78 44 0 0 0
15 65 53 0 0 0
23 87 115 0 0 0
30 70 103 0 0 0
124 88 81 0 0 0
24 7 70 0 0 0
89 53 119 0 0 0
